ply
		format ascii 1.0
		element vertex 19272
		property float x
		property float y
		property float z
		property uchar blue
		property uchar green
		property uchar red
		end_header
-106.802022 67.587304 1697.268867 169 150 97
-122.860229 -92.056936 1854.448891 87 84 45
-122.860229 -92.056936 1854.448891 87 84 45
-84.965307 552.175760 1397.731876 130 133 150
-119.537604 -204.095650 1889.728355 127 117 59
-86.388934 437.455654 1460.473919 136 132 127
-99.740762 16.905460 1702.526665 178 161 95
-110.404658 -50.739485 1793.219757 81 77 42
-117.837226 -147.219765 1875.239563 30 29 21
-106.128097 167.852223 1684.783745 121 104 69
-115.783620 -176.643598 1876.835442 74 71 20
-102.828896 181.114745 1674.360657 254 254 251
-110.234106 -59.973013 1820.051384 173 158 86
-113.016105 -69.286281 1847.595406 31 25 19
-78.204060 559.711313 1393.849850 224 212 195
-110.417891 -203.118253 1889.456940 201 188 121
-109.112740 -163.325167 1870.037842 49 45 23
-105.635393 -84.013110 1832.111549 125 108 53
-76.645297 523.451567 1414.443111 137 140 155
-78.380579 370.831347 1485.887241 189 184 121
-73.414838 625.182676 1359.270096 164 168 176
-104.410267 -108.449757 1850.714111 19 17 13
-104.084432 -165.675557 1875.616455 90 86 48
-103.185666 -176.418018 1874.954033 187 174 99
-88.968712 -0.170618 1721.585655 143 122 77
-94.428003 213.584948 1670.053673 254 253 252
-101.101911 -193.404734 1886.730766 137 127 67
-70.692974 578.951836 1384.087944 185 188 193
-72.995746 469.360495 1444.781017 160 163 158
-88.499099 170.573699 1663.591766 208 189 133
-104.401290 -144.659758 1891.816902 18 16 12
-89.652270 -2.218728 1742.839241 46 37 29
-101.444542 -164.817631 1884.751129 30 26 18
-99.390358 -170.633304 1877.469635 135 126 69
-73.957217 252.138424 1548.432541 197 196 145
-99.719757 -127.462566 1872.736549 63 57 38
-85.738641 166.764235 1666.432571 88 75 33
-96.539891 -89.855063 1840.894508 12 10 10
-85.006958 44.424909 1716.437340 167 150 87
-85.599655 218.116808 1654.908943 105 98 36
-70.043051 255.150485 1544.226360 106 124 51
-85.796648 3.473563 1754.944229 52 45 35
-92.098516 -97.838938 1838.860321 162 152 94
-65.135974 567.844009 1391.314030 150 153 157
-94.845980 -137.841606 1884.026146 21 17 15
-92.451400 -77.215904 1850.844002 53 46 30
-97.803867 -210.542870 1951.870155 104 92 44
-81.909609 8.032430 1761.756134 14 12 10
-81.909609 8.032430 1761.756134 14 12 10
-78.592110 216.030359 1652.367973 114 107 51
-76.623970 210.732198 1645.486832 177 166 100
-95.563257 -224.831390 1975.067902 171 164 95
-79.533505 -120.085704 1844.588852 138 124 57
-79.533505 -120.085704 1844.588852 138 124 57
-87.555575 -109.848773 1892.217636 108 102 52
-69.019198 171.919906 1649.759293 73 59 30
-69.595098 136.220682 1670.855522 193 175 111
-81.685960 -22.282831 1823.364449 67 57 42
-69.417149 221.635580 1640.692329 49 46 25
-79.268074 -47.557446 1838.778114 42 39 34
-65.232641 151.473522 1672.123909 139 124 59
-65.232641 151.473522 1672.123909 139 124 59
-46.136409 278.185129 1493.432903 133 135 77
-74.173599 -41.151512 1834.664917 49 44 43
-44.980127 271.186733 1493.237019 87 88 57
-70.942014 -5.932081 1820.412636 90 84 61
-72.835946 90.405297 1785.830879 21 19 18
-71.152800 -71.653599 1854.060555 133 121 72
-55.578220 241.033983 1607.309914 185 191 137
-69.991195 65.108734 1787.088203 20 17 17
-73.405874 -196.771777 1935.739136 141 138 66
-73.405874 -196.771777 1935.739136 141 138 66
-45.393905 371.456170 1488.896751 187 170 88
-43.046844 650.353432 1342.658043 160 160 163
-65.876651 -25.038785 1825.102806 164 144 96
-70.869362 -191.762853 1942.938232 186 181 113
-62.176383 0.457760 1815.390587 146 127 80
-42.137948 256.233001 1549.241924 88 115 44
-41.520301 375.217843 1488.630867 182 175 96
-66.957933 -171.076441 1935.383034 151 142 89
-38.897499 651.937962 1341.968346 171 174 178
-60.896897 -36.836469 1834.760666 163 139 80
-61.781251 -116.311347 1885.481262 191 179 111
-47.705141 212.939978 1624.512482 36 34 21
-60.964596 -96.070093 1870.303726 185 159 87
-60.166955 -9.957945 1823.616219 67 59 49
-35.055238 290.731692 1494.768047 174 178 150
-61.496854 -122.352183 1891.564941 84 71 33
-58.333933 -23.876473 1826.408386 19 19 21
-38.006696 434.536839 1456.890488 222 214 175
-56.074786 -96.637177 1852.278328 119 100 49
-35.621575 648.205853 1344.427109 152 156 163
-48.822692 176.934481 1685.706711 255 254 250
-54.192287 -20.348479 1832.022858 80 86 72
-54.752260 17.970261 1818.868446 148 133 88
-58.937055 -200.610566 1959.889412 171 165 86
-58.586913 -191.342139 1952.827835 76 69 36
-46.596578 185.134971 1676.158714 69 56 46
-57.089555 -165.398967 1935.728645 168 154 101
-53.352207 -99.570805 1881.742096 184 166 97
-56.484985 40.286666 1838.315201 254 246 242
-38.459226 215.988350 1612.938118 191 180 111
-31.730723 409.564018 1468.712044 167 164 96
-54.217792 4.550514 1879.426956 138 132 81
-42.541802 8.978231 1824.916649 138 132 81
-44.090760 23.611008 1829.581642 20 15 14
-29.384348 204.614329 1628.895569 195 188 121
-44.115388 -102.839124 1913.868523 64 57 30
-43.565732 -175.800908 1955.328560 176 162 92
-26.159701 219.186282 1609.498596 116 107 55
-41.709432 -82.344615 1913.772774 132 119 68
-20.842621 261.742878 1567.015648 158 167 115
-37.889495 -168.596232 1947.699356 128 115 57
-33.359703 -30.673912 1854.774857 18 14 14
-11.775013 391.501784 1474.569988 192 193 186
-16.513753 240.005994 1602.198219 108 113 75
-12.259733 435.426426 1456.471729 206 205 199
-10.518860 381.413889 1473.171616 114 116 91
-9.156366 362.041163 1477.996445 211 206 184
-8.554590 354.154515 1481.588459 203 205 205
-9.524022 424.686575 1465.238476 195 192 173
-8.528948 416.217566 1469.027710 44 50 54
-5.180655 366.195989 1470.222950 213 211 199
-22.925101 -57.660192 1877.851295 254 245 241
-10.902551 240.392900 1605.320549 255 253 250
-15.310758 278.775549 1628.561592 123 133 83
-9.112285 247.181201 1595.723343 133 143 127
-4.630967 386.362028 1476.956177 168 163 104
-4.425872 392.133212 1476.983452 88 93 69
-4.425872 392.133212 1476.983452 88 93 69
-0.489596 378.261709 1475.816631 74 79 48
-1.866931 395.004320 1478.528690 90 89 69
-0.884469 406.125212 1471.900177 195 190 169
-1.601683 225.011420 1608.991241 95 97 54
2.345153 622.104073 1334.899902 169 168 162
2.845128 396.684790 1472.370338 183 175 132
2.265245 431.517792 1463.081837 198 196 191
3.719561 388.879633 1476.856804 161 160 89
5.939960 369.708776 1478.387165 93 92 51
4.738196 650.474596 1315.030956 163 164 161
4.658781 406.899786 1472.074509 183 175 148
8.961071 343.881130 1486.413670 152 145 88
6.885710 660.023928 1307.755947 220 218 218
7.730357 614.225817 1335.402870 175 174 168
10.570698 365.870500 1477.761459 174 163 111
-23.482701 143.758774 2002.156258 255 250 245
13.507821 655.277348 1305.750656 213 213 213
16.928855 644.994164 1309.810257 167 168 172
21.135908 320.164871 1506.566143 56 57 37
21.135908 320.164871 1506.566143 56 57 37
17.685683 531.269217 1402.417850 192 189 183
-8.002263 500.585604 1740.415001 254 248 246
25.644797 336.227417 1489.006138 187 178 150
-7.373578 499.975443 1737.280273 254 248 246
25.366542 628.035641 1315.528774 175 176 179
30.898428 660.924196 1296.611691 199 196 183
31.581351 643.844748 1301.901722 209 206 205
31.955156 637.788439 1304.440403 212 211 209
5.758202 486.762810 1796.590042 72 70 74
36.039519 653.189898 1297.707367 134 137 126
41.072395 658.879328 1302.777767 120 124 108
40.783116 671.589327 1299.832916 90 92 80
43.365988 657.180119 1303.853607 179 176 175
45.501325 667.816305 1300.500679 59 61 48
55.342853 633.825111 1375.960255 134 137 146
79.239982 709.951496 1476.000881 172 167 167
187.154186 427.911329 1070.902634 190 189 195
-928.780746 713.941479 1982.029533 113 110 83
-938.510704 624.250793 2013.092232 44 45 38
-929.456520 693.421936 1999.309158 100 87 62
-925.252438 721.552420 1991.350937 104 107 95
-932.746506 628.963375 2017.763329 178 178 137
-962.313175 578.554916 2072.948265 147 139 106
-962.313175 578.554916 2072.948265 147 139 106
-439.602184 632.619286 1265.167618 155 156 165
-437.304211 629.216671 1264.052010 223 219 225
-946.985912 598.809481 2063.782310 254 255 255
-433.291006 638.500881 1264.260674 83 93 115
-427.366495 649.984694 1261.332226 31 32 54
-917.594528 640.689850 2040.964890 48 48 47
-915.958500 642.640066 2050.273323 230 235 245
-915.958500 642.640066 2050.273323 230 235 245
-926.395988 679.524612 2066.659737 254 254 254
-923.030758 667.722607 2065.188408 44 42 36
-430.003977 570.056343 1301.286125 35 40 62
-376.751781 584.471226 1220.636559 186 174 172
-376.751781 584.471226 1220.636559 186 174 172
-631.206131 763.526392 1614.431381 60 60 74
-389.693832 647.794199 1261.543179 157 160 165
-388.009548 634.420538 1262.793541 185 185 188
-388.009548 634.420538 1262.793541 185 185 188
-616.941786 727.439928 1633.270645 52 53 83
-617.183447 712.190485 1641.037941 43 40 53
-613.735485 714.514446 1643.528748 204 204 208
-602.696991 627.289963 1667.068481 64 60 94
-244.583774 537.831926 1073.902988 155 156 165
-239.291596 542.566442 1072.972202 83 93 115
-234.635615 552.139044 1070.696545 31 32 54
-234.635615 552.139044 1070.696545 31 32 54
-237.179637 486.795902 1103.600597 35 40 62
-237.179637 486.795902 1103.600597 35 40 62
-347.884655 616.769600 1298.909092 60 60 74
-338.116336 639.961386 1286.507511 227 224 232
-307.041645 639.634085 1263.406086 182 176 159
-296.343946 641.897106 1260.592365 155 152 128
-300.150466 608.994675 1275.189400 203 201 196
-292.167330 639.278507 1262.089729 190 180 158
-288.466072 644.985151 1262.486172 132 125 108
-287.212062 650.919580 1260.105419 180 179 171
-442.184782 -40.785259 1696.206856 137 123 73
-442.184782 -40.785259 1696.206856 137 123 73
-310.507298 562.992668 1331.372547 109 125 150
-310.507298 562.992668 1331.372547 109 125 150
-337.248969 349.850059 1433.726311 255 255 255
-336.223459 270.566702 1446.747589 161 163 154
-276.924443 643.960428 1276.531696 185 184 179
-328.382754 345.785809 1437.020206 178 171 127
-432.680035 -39.046317 1726.018333 80 70 38
-433.239841 -53.907222 1732.612991 66 58 38
-321.182394 336.246586 1438.201809 126 120 71
-311.818242 435.625315 1410.224342 255 254 253
-417.417192 -72.233170 1725.376892 177 166 90
-311.728978 390.217495 1429.095936 172 159 117
-309.325647 336.910367 1437.956333 138 133 91
-264.628100 663.934231 1286.218643 129 132 120
-301.486206 438.298512 1408.675957 177 170 157
-305.457878 408.632803 1425.211143 115 117 83
-302.856445 330.217719 1436.903095 153 148 113
-302.856445 330.217719 1436.903095 153 148 113
-304.550028 391.907716 1431.660366 132 126 63
-407.874680 -79.514730 1738.737488 183 170 89
-405.669689 -62.587881 1737.337875 89 73 33
-293.476105 384.902215 1434.024906 41 43 35
-291.281009 376.227188 1434.575558 165 165 153
-291.586947 364.346576 1439.623451 180 177 168
-398.329329 -89.952368 1767.651939 157 143 59
-398.329329 -89.952368 1767.651939 157 143 59
-392.611647 -91.008401 1776.486397 88 79 24
-392.965055 -103.718781 1780.920029 167 154 74
-280.484414 395.218277 1438.609695 186 179 125
-278.477335 334.978533 1446.141911 43 45 32
-399.307537 -69.590914 1804.950333 254 253 249
-270.363903 334.638047 1449.193096 60 61 30
-388.083816 -134.990418 1809.562302 125 112 55
-284.363937 328.884053 1485.465813 135 134 92
-369.093609 -27.977726 1770.587730 255 254 250
-376.217008 -134.388852 1817.986679 178 161 99
-139.993572 271.314931 1218.188858 115 117 83
-379.814076 -129.342139 1859.750366 66 55 38
-365.196157 -123.563004 1825.133514 34 28 18
-363.762593 180.349326 1762.709236 113 101 53
-361.856341 -113.078082 1831.813431 19 16 16
-361.420012 -141.754711 1840.242958 108 93 53
-233.799338 488.394690 1407.565308 120 118 119
-358.088636 59.382391 1814.994621 94 79 53
-226.729107 499.135828 1404.206371 189 196 186
-226.539874 498.968887 1403.962421 189 196 186
-338.885546 219.152927 1739.455605 150 134 68
-347.423434 -161.731887 1853.685760 44 39 12
-345.323896 -121.380115 1840.501022 123 101 49
-215.856528 532.458639 1388.938332 111 108 113
-224.685264 346.185875 1461.115837 133 127 86
-325.988483 191.223848 1754.194069 165 144 96
-372.778368 -364.987636 1999.031258 54 43 21
-338.393712 -170.063818 1870.782089 146 121 62
-221.002150 354.673886 1463.917160 66 70 44
-208.777189 505.600595 1402.940750 205 198 164
-333.828354 -149.306917 1865.807533 25 18 11
-229.229999 249.589682 1523.275471 170 165 154
-365.415764 -314.943242 1996.332169 254 248 243
-200.525451 532.367563 1389.868355 103 103 108
-198.070908 537.493992 1388.191414 119 114 116
-323.658419 117.673385 1807.387352 25 21 17
-324.686313 -185.569203 1883.953476 122 105 60
-354.342198 -333.060145 2006.395149 255 246 242
-279.136324 -72.944307 1758.550644 146 131 77
-285.127211 16.331261 1755.341148 39 33 22
-194.176674 491.806459 1413.612747 186 210 226
-278.913355 -14.844191 1757.965469 90 89 75
-297.485805 157.368612 1766.285706 47 34 12
-336.927700 -397.336555 2001.042175 254 247 236
-210.926914 255.901027 1519.458389 116 140 82
-341.189742 -343.437910 2002.162552 241 235 233
-278.228092 12.640163 1754.781342 122 104 66
-185.353553 543.891478 1387.391472 128 129 130
-198.940289 356.686854 1469.970417 84 87 50
-276.678109 39.653030 1754.677200 83 70 51
-181.855416 542.544413 1387.860775 136 139 138
-274.113655 69.023269 1756.989670 38 35 30
-319.979811 -363.661909 1987.260246 172 158 122
-184.916496 370.463777 1469.750404 132 127 70
-249.285746 96.457934 1745.344162 128 112 80
-295.662165 -311.624217 1979.549408 16 14 13
-288.996625 -350.069666 1976.378822 53 45 19
-158.913016 531.346321 1398.442173 199 215 221
-241.912055 182.514763 1718.810654 181 159 105
-279.639745 -358.418489 1980.896759 22 17 12
-275.260162 -361.608768 1973.772621 84 75 36
-276.992035 -351.603723 1978.268814 165 143 91
-231.131983 210.476017 1708.617401 197 175 116
-231.715178 154.969811 1725.567245 115 91 39
-234.245849 110.353017 1748.403549 37 31 21
-267.617583 -409.034491 1997.119331 177 163 108
-163.767159 251.064944 1533.939743 189 192 166
-147.780538 331.944203 1472.079754 155 154 123
-151.422453 394.922209 1470.458984 118 116 50
-146.821320 390.343928 1470.172596 200 199 146
-209.349871 198.994756 1716.741562 169 145 75
-219.447398 -247.471166 1874.985886 59 58 22
-218.623781 -247.033310 1873.313141 59 58 22
-237.631249 -290.838075 1943.158340 184 171 118
-198.434663 -127.440453 1782.455635 184 176 127
-190.922010 -62.661034 1745.058250 185 176 103
-130.829978 512.833405 1413.647175 135 138 142
-129.230273 506.438589 1417.467403 121 132 144
-131.896055 331.946349 1474.258518 156 161 120
-210.187984 -238.385320 1874.913025 192 185 122
-208.381891 -247.995353 1881.011581 41 36 20
-208.381891 -247.995353 1881.011581 41 36 20
-122.768331 270.316863 1482.043076 90 92 68
-130.443335 358.850813 1481.341267 75 82 44
-224.848843 -39.549869 1890.772629 61 54 28
-118.298686 541.257095 1400.240517 194 191 185
-198.510957 -219.066191 1861.897850 41 37 24
-186.488628 -147.737074 1809.037209 179 170 95
-116.865718 537.086487 1402.298641 149 149 159
-122.625422 350.643158 1481.375122 132 130 77
-122.625422 350.643158 1481.375122 132 130 77
-185.522079 -168.920755 1827.633667 174 169 98
-222.089481 -355.457044 1997.589874 99 81 43
-163.869262 -7.027587 1718.984604 189 166 116
-183.838820 -184.221721 1833.513451 197 188 114
-195.568407 -250.390387 1892.212105 182 179 106
-113.867295 499.611568 1423.792458 147 147 157
-224.785089 -375.874329 2023.434258 44 39 33
-189.426947 -231.919932 1872.514343 198 193 113
-107.886744 569.518375 1386.490250 137 141 152
-184.670103 -227.615976 1861.278915 186 179 93
-109.950554 513.530302 1417.043495 152 147 157
-109.950554 513.530302 1417.043495 152 147 157
-157.410991 -32.643059 1728.236389 149 139 83
-186.958587 -240.504408 1887.678909 106 99 42
-106.680942 494.130850 1426.421738 173 179 185
-177.118886 -219.138432 1862.168884 58 52 34
-105.507398 501.195478 1423.065853 129 129 138
-151.432753 7.629467 1717.164230 105 91 59
-110.151541 367.633462 1480.984116 132 135 85
-101.588869 501.916933 1424.134445 190 212 226
-144.708824 -10.138002 1718.822479 23 19 20
-135.751331 -26.150998 1716.404724 29 25 21
-135.751331 -26.150998 1716.404724 29 25 21
-93.838477 525.892210 1412.521744 161 158 162
-96.311086 333.252358 1479.326057 167 172 123
-163.155138 -181.677318 1859.661102 56 50 22
-105.124843 230.269742 1553.739262 215 207 184
-157.752860 -160.332596 1851.417732 158 144 83
-137.647259 66.870540 1719.797516 16 11 14
-102.925646 234.579444 1552.212143 149 147 120
-128.140104 14.967060 1705.832481 105 98 52
-127.654147 42.985290 1703.463936 151 134 92
-85.012281 530.181456 1412.440395 186 209 224
-152.469003 -149.646759 1852.599907 156 145 74
-152.469003 -149.646759 1852.599907 156 145 74
-76.430184 271.051121 1488.734627 106 110 62
-113.796854 11.680370 1702.867889 188 177 116
-139.657080 -102.659667 1835.520554 173 161 90
-115.778959 -24.225168 1728.896332 30 26 19
-81.944239 373.834968 1486.723709 116 118 48
-81.651628 397.294307 1480.812454 99 101 39
-71.809274 566.715860 1393.594933 196 187 160
-142.518342 -209.044027 1891.216660 24 19 17
-78.672755 371.037269 1486.845875 183 181 118
-65.987641 567.648649 1394.605160 151 150 156
-104.636943 -25.735360 1728.526878 28 20 16
-103.046739 -0.364640 1715.372086 104 87 56
-117.779040 -58.434743 1787.536430 182 180 102
-127.879107 -124.199629 1853.021431 190 177 91
-101.350582 -23.858677 1737.153053 27 23 17
-109.665859 -50.012940 1790.082550 85 82 51
-93.279940 18.624415 1709.240341 107 90 47
-95.833564 -24.538669 1739.397621 28 23 17
-91.787314 60.944653 1700.294876 183 165 102
-66.726208 251.987410 1548.970890 202 199 153
-115.712059 -166.674149 1870.903778 182 181 100
-66.646403 252.119255 1548.756504 202 199 153
-52.686292 271.761656 1493.492889 85 89 49
-87.585509 162.451780 1668.415260 197 181 116
-57.596534 374.907112 1491.552162 117 120 46
-98.287582 -27.329952 1784.202766 127 113 59
-80.572087 153.463089 1671.121025 149 124 57
-85.878009 6.350506 1749.062157 48 40 32
-96.225816 -99.973965 1827.679634 151 140 83
-50.405371 370.219159 1493.189907 155 145 67
-76.275653 218.607330 1647.319031 156 142 78
-105.510163 -159.871948 1892.032242 77 74 44
-101.348877 -78.285360 1855.019951 129 125 70
-69.662124 158.044827 1670.387840 195 176 113
-66.904980 197.185814 1648.457718 85 75 46
-90.294224 -76.053435 1841.845512 45 41 27
-37.127519 339.806390 1486.245346 173 172 134
-65.786439 151.793361 1674.082375 131 113 50
-62.692654 170.099771 1668.131828 93 74 20
-62.692654 170.099771 1668.131828 93 74 20
-33.435166 344.332075 1490.987015 51 52 29
-100.000823 -218.512726 1965.804100 172 167 92
-37.318194 270.945263 1538.281059 183 186 142
-31.016639 348.912501 1486.983109 142 140 87
-30.553487 348.688984 1486.082935 142 140 87
-32.418442 409.691811 1471.550083 165 160 90
-27.304217 342.015553 1488.808727 70 71 36
-72.470677 -32.455921 1833.695602 90 75 53
-72.026688 -50.121844 1847.439384 44 41 33
-26.707280 272.988462 1539.289570 194 196 162
-27.750292 240.566087 1574.611568 176 178 154
-7.939904 621.695042 1347.887802 192 189 184
-15.938605 348.227930 1489.965248 29 31 30
-73.604113 -183.269668 1941.432381 131 132 78
-11.387321 285.296440 1500.082684 69 74 58
-61.984235 -37.520099 1839.738274 170 144 84
-22.970824 262.538791 1562.185383 105 126 63
-15.264520 397.911739 1477.665615 173 171 165
-14.032361 428.571320 1463.455105 195 194 183
-14.032361 428.571320 1463.455105 195 194 183
-13.036846 422.205925 1466.202354 195 191 180
-56.809348 -2.303815 1821.326256 165 135 84
-66.650498 -165.888679 1933.370209 58 46 39
-26.538506 219.424701 1610.974884 104 92 46
-6.584287 371.001554 1472.732735 133 133 121
-10.756998 419.649744 1473.013115 164 164 152
-63.662088 -162.500894 1935.992813 189 174 114
-1.299326 278.576231 1500.518131 137 145 107
-5.223871 386.421800 1479.645348 160 154 97
-56.295198 -126.987457 1909.421349 72 68 33
-56.295198 -126.987457 1909.421349 72 68 33
-56.245428 -145.391715 1920.200157 170 161 108
2.173658 510.208273 1416.092587 215 213 213
2.173658 510.208273 1416.092587 215 213 213
-0.318838 415.418243 1471.878147 86 88 71
-43.642095 -84.392238 1872.260666 166 150 89
15.223308 655.006409 1311.189175 132 134 115
0.900560 426.022959 1470.965385 188 184 169
6.599639 520.914173 1407.625771 211 210 210
-48.669335 -142.713380 1930.004692 166 154 96
-48.669335 -142.713380 1930.004692 166 154 96
-50.996763 -191.131568 1961.680412 34 29 19
8.101328 523.663330 1402.471638 161 162 165
6.104799 342.507005 1489.188862 108 107 70
-46.841326 -155.447960 1935.403442 76 69 35
4.876636 446.555662 1470.267010 49 51 45
12.552573 518.975830 1407.259560 204 205 207
22.092204 614.669323 1330.814075 225 221 221
-43.481651 -118.763828 1945.524979 90 71 35
13.317540 498.209763 1425.665760 204 202 200
17.015250 524.300289 1407.246494 160 162 160
15.913476 529.239845 1410.464382 74 75 67
20.206366 522.200584 1409.714985 104 108 106
21.028921 519.277906 1409.953403 191 190 192
-31.018370 -166.375244 1981.817245 178 164 87
20.844747 371.200371 1495.943928 96 91 69
22.454105 369.979739 1502.636909 85 84 72
-26.385510 -133.705091 1975.894165 94 85 59
-29.615203 516.180611 1713.263702 86 90 88
-29.615203 516.180611 1713.263702 86 90 88
-27.388659 520.731735 1714.916229 140 140 140
-22.014841 536.460495 1712.216759 40 45 52
-23.126920 563.960791 1717.202568 255 255 255
44.838351 286.319041 1510.262489 52 56 56
-14.523052 508.609390 1722.527504 151 148 136
50.410497 666.658258 1318.231869 183 181 178
105.405033 519.615030 1517.953491 138 145 159
58.451474 675.703239 1330.407619 169 169 162
223.385024 193.782258 807.551765 254 254 254
-35.464978 1007.988453 2107.926369 138 147 173
39.083385 753.159523 1914.484215 185 182 183
144.253898 632.278919 1595.170116 185 182 183
177.480483 674.722099 1369.973469 155 156 163
-878.974628 408.156824 1870.238304 111 115 110
-872.469234 406.577396 1864.782715 111 115 110
-872.469234 406.577396 1864.782715 111 115 110
-499.212503 700.788927 1369.581223 103 113 139
-498.027992 692.523336 1374.860191 218 217 219
-321.945548 556.645203 1214.273834 177 175 187
-291.795969 650.014925 1255.757713 116 119 101
-355.773830 268.575263 1437.560081 254 254 254
-281.122136 654.107475 1261.953068 74 78 48
-352.121210 278.120375 1442.333126 254 254 254
-349.719501 283.100843 1441.876221 254 254 254
-275.301385 655.200052 1268.434429 172 171 158
-278.435850 610.671139 1292.624950 149 149 140
-340.687323 298.305368 1447.131538 70 71 60
-333.267379 289.041972 1445.052624 171 175 146
-297.271514 507.053328 1356.368923 187 184 183
-305.032372 483.143711 1375.080585 132 126 90
-314.277887 272.029233 1446.005058 163 161 136
-319.862843 328.439283 1440.621376 171 165 118
-269.492483 598.023510 1312.546349 156 154 151
-312.332463 359.713840 1426.593876 113 103 50
-311.094451 435.099554 1408.244324 255 254 255
-309.644651 428.202677 1411.439610 255 255 254
-308.290768 360.683966 1426.905155 166 158 123
-309.031177 368.141770 1426.848316 98 91 47
-308.914185 374.520206 1428.218746 109 98 42
-438.342571 -45.048374 1715.704918 253 255 253
-438.342571 -45.048374 1715.704918 253 255 253
-299.503160 272.169614 1450.644398 144 149 119
-300.367594 338.192439 1440.494823 87 89 52
-332.231283 250.610662 1515.936184 255 255 255
-291.073704 355.677581 1435.439873 195 186 145
-291.600895 385.336494 1431.209660 46 45 37
-289.579535 376.742148 1431.975460 161 160 151
-431.129074 -48.219925 1741.171646 254 254 254
-287.184143 362.124991 1440.226555 91 87 57
-283.139920 348.096013 1448.254013 55 56 37
-278.278422 340.795970 1443.242550 137 137 101
-277.128434 335.767484 1443.921375 55 52 32
-435.526276 114.846706 1730.408287 255 255 255
-404.572248 -55.417997 1735.327911 254 254 253
-391.215968 -48.049757 1730.671883 255 255 255
-302.862430 332.079864 1511.847687 153 151 90
-266.756606 368.179798 1453.887844 90 90 40
-399.630213 -90.116119 1769.611549 155 141 57
-398.912477 -108.115375 1777.486992 114 98 49
-285.951591 219.116092 1531.436348 90 90 85
-407.331753 -136.357737 1803.494263 253 255 254
-407.176590 -136.689878 1803.483391 253 255 254
-394.046831 -91.218132 1778.690338 90 79 28
-403.303528 -131.405318 1804.855728 128 119 68
-247.104478 336.633563 1454.370594 68 72 40
-277.389216 218.683577 1533.709812 125 137 113
-260.230327 253.124714 1514.262867 116 129 96
-229.299808 481.212568 1410.429668 216 204 168
-377.989244 -98.419482 1795.392990 58 47 29
-374.572206 -93.151700 1799.482155 116 102 45
-374.572206 -93.151700 1799.482155 116 102 45
-225.043726 346.930003 1461.416340 132 130 86
-211.505437 502.494192 1401.854229 117 116 120
-211.505437 502.494192 1401.854229 117 116 120
-369.809580 -121.245658 1821.156120 35 28 18
-207.490420 505.352306 1400.965500 195 192 160
-236.828327 253.597665 1516.189480 106 117 81
-373.915744 -168.418527 1851.148796 178 167 98
-196.931589 537.010193 1386.509991 125 119 123
-367.173219 -197.587395 1863.347435 255 255 255
-210.491276 392.440200 1458.249283 95 94 60
-196.812284 492.822552 1410.120583 165 160 146
-190.511179 534.846449 1388.995171 201 194 168
-336.566305 -40.861362 1780.742455 255 255 255
-361.712337 -177.646470 1864.251900 189 180 114
-368.409157 60.875684 1812.409401 131 111 72
-188.786316 267.360735 1469.968891 96 91 67
-180.955875 542.107201 1386.518383 146 146 145
-348.808432 180.125403 1758.524704 165 144 87
-344.352341 160.051644 1766.753769 251 252 249
-194.307566 370.577812 1466.889763 107 105 66
-340.990901 154.279315 1769.046402 255 255 255
-343.441319 -170.936453 1868.317795 43 36 15
-174.420917 269.714284 1472.366714 83 89 57
-346.174359 56.205910 1816.606140 133 115 86
-339.692807 88.978934 1798.270798 106 86 38
-186.750436 393.433523 1463.132668 135 125 68
-165.523517 551.199102 1384.873581 143 146 149
-326.260710 151.951277 1764.526939 119 102 50
-326.260710 151.951277 1764.526939 119 102 50
-343.369079 131.070793 1800.914574 253 252 252
-343.369079 131.070793 1800.914574 253 252 252
-161.700964 547.193193 1386.796665 216 203 173
-198.278999 226.682734 1539.589596 198 194 177
-341.579819 142.050016 1803.383446 255 255 255
-158.454430 551.412582 1384.990406 139 142 150
-315.402722 190.241778 1754.767036 157 136 82
-174.831438 357.292700 1471.477604 101 100 57
-364.289355 -353.554654 1999.764252 68 52 34
-162.435925 282.775259 1476.701069 54 60 36
-269.688010 -104.918063 1777.936172 153 140 84
-362.998772 -338.871431 2006.786919 74 57 49
-169.330764 394.014502 1465.215492 132 125 75
-258.043480 -74.302918 1752.361870 175 161 113
-301.465654 201.364613 1747.838974 76 65 28
-307.294345 187.531900 1762.956429 138 120 71
-303.717256 157.414055 1766.657257 170 149 96
-269.701600 13.383709 1755.084419 19 14 13
-260.939169 6.231708 1754.069138 116 104 69
-262.363076 39.807582 1752.661133 132 119 94
-253.530908 14.032046 1750.977898 125 119 91
-258.225679 60.291350 1752.681351 153 130 87
-252.754402 29.898867 1753.414345 91 82 70
-150.490320 394.851065 1468.812847 115 112 54
-150.490320 394.851065 1468.812847 115 112 54
-261.680031 90.940225 1755.594444 86 76 41
-257.388806 91.246355 1750.168037 86 76 41
-146.401155 390.439939 1469.378948 189 188 122
-252.505755 122.325921 1741.612244 177 158 118
-242.357349 -178.722095 1816.306877 68 62 28
-242.357349 -178.722095 1816.306877 68 62 28
-226.967597 -126.190329 1775.185013 196 188 148
-138.047898 319.590974 1483.140659 156 148 85
-220.339203 -60.967326 1745.960236 14 13 13
-220.339203 -60.967326 1745.960236 14 13 13
-241.138124 89.165413 1745.236397 46 39 25
-122.660506 505.984354 1417.042446 132 132 140
-133.648372 379.816961 1476.406956 156 154 96
-203.304553 -65.569699 1738.345337 178 169 88
-224.710941 -176.050651 1814.978027 153 139 85
-207.521582 -108.085823 1765.576744 166 148 87
-125.648010 357.700586 1476.611900 75 83 42
-125.648010 357.700586 1476.611900 75 83 42
-130.561185 395.432591 1474.241161 99 102 56
-145.778883 224.559188 1558.779621 152 154 88
-121.652257 350.558233 1479.592609 130 131 81
-219.944429 196.086192 1712.683678 126 107 52
-138.107336 224.813199 1557.633018 144 140 76
-226.177859 -221.310234 1861.010170 166 158 90
-105.467999 527.206469 1410.276127 205 215 222
-261.814022 -348.917270 1976.256371 182 170 122
-262.506795 -412.503910 1998.591995 185 174 121
-114.780879 372.875714 1480.706596 97 100 52
-114.780879 372.875714 1480.706596 97 100 52
-104.977036 503.275537 1422.364712 144 142 151
-105.575252 330.213499 1482.171917 115 116 97
-208.292508 204.761529 1716.754150 68 56 25
-100.083697 510.963631 1418.852234 152 148 151
-101.207733 333.252144 1477.973080 162 165 117
-96.516401 297.548985 1484.248734 177 171 104
-96.384263 297.512054 1484.099102 177 171 104
-201.730728 -206.843996 1847.180557 114 104 42
-88.840598 12.795572 1580.766964 102 91 66
-93.649971 525.450802 1412.322903 164 161 165
-170.624995 -38.662714 1739.562988 179 171 120
-208.652997 211.684108 1733.198166 72 63 33
-164.746618 -12.208422 1721.628952 177 161 116
-243.672085 -370.542216 1988.501549 142 122 78
-208.335233 145.230281 1756.440353 84 77 58
-241.454053 -357.265282 1983.424187 48 39 24
-196.145475 -205.153513 1848.575020 96 87 29
-237.088919 -413.795710 1995.215988 210 203 149
-168.618309 -54.936045 1749.357224 14 12 11
-92.688584 500.831652 1426.282501 148 155 167
-99.452275 373.387074 1482.736588 114 107 56
-187.698066 -173.271346 1829.197121 92 86 32
-204.092503 -248.040438 1887.100029 47 45 27
-106.939650 254.683399 1541.447067 100 99 70
-84.788090 537.828588 1407.211590 136 136 147
-230.920148 -335.434747 1971.522141 41 31 17
-204.731798 162.722719 1759.274292 88 81 59
-230.603385 -335.254502 1971.029854 41 31 17
-196.572506 -239.695835 1877.808189 167 162 93
-107.603920 240.182710 1550.675488 175 174 143
-83.292848 509.080410 1423.232937 215 209 206
-220.213056 -318.270707 1960.944366 137 118 68
-84.868991 350.890565 1482.937431 127 129 79
-222.509885 -345.014238 1980.549049 36 23 14
-225.936437 -297.501922 1973.000717 36 29 20
-176.975358 -164.449608 1834.605789 156 150 82
-218.272471 -327.569747 1969.453430 174 152 92
-214.123011 -416.435099 1994.551849 155 140 67
-199.091065 -263.864684 1914.860535 38 30 19
-221.983624 -49.354494 1888.640404 54 49 45
-72.122949 566.333389 1394.361115 191 185 157
-66.091537 614.884377 1367.624569 162 170 182
-187.205291 -241.134763 1888.445091 92 85 38
-74.363047 531.073904 1413.138771 115 124 135
-73.716557 530.903864 1412.350845 115 124 135
-223.982072 -344.987679 2007.600594 136 117 67
-138.918626 -48.427707 1741.528130 98 90 39
-132.181954 -10.023122 1718.391228 69 57 45
-72.026682 494.921064 1432.630634 142 145 155
-177.087653 -235.116839 1886.424065 110 96 50
-165.350807 -159.516025 1838.268661 161 148 83
-164.185977 -143.049777 1831.924248 81 78 41
-169.114029 -169.211245 1850.945663 77 70 26
-129.296958 -18.122278 1722.307396 118 110 86
-166.683674 -181.015360 1855.454254 163 144 76
-170.841837 205.191350 1733.545685 255 255 255
-158.566511 -138.298357 1837.411308 83 78 40
-115.772676 -24.019021 1728.752136 31 28 24
-62.145638 369.157052 1488.733482 157 155 79
-62.352312 396.419120 1483.226395 125 128 96
-126.778829 -66.478133 1776.044846 187 183 111
-163.055766 -234.736848 1910.700417 36 32 16
-117.572033 134.792101 1691.178322 198 178 125
-35.589850 640.234423 1353.986835 166 169 169
-109.691846 161.023402 1680.557632 21 18 16
-100.250268 -2.017545 1720.888329 179 163 102
-60.985816 256.742215 1549.656868 103 122 44
-45.150444 436.508703 1462.169552 148 141 124
-43.530011 318.961549 1500.768948 53 56 30
-135.632682 -188.354063 1877.648354 185 176 105
-92.101306 6.827315 1721.246910 168 153 88
-93.055868 160.282481 1670.378494 122 102 53
-93.372756 168.762362 1670.861435 113 97 44
-88.098896 43.734467 1705.853271 179 157 94
-95.290536 -18.469328 1744.201088 21 16 18
-128.617549 -124.326789 1854.567719 190 180 94
-108.994782 -49.406856 1788.340569 84 80 46
-89.524579 10.214459 1726.215363 175 162 85
-123.245144 -81.157899 1830.729675 160 146 93
-135.677147 -71.078724 1857.323265 171 160 91
297.623754 108.353949 979.835892 163 147 78
-86.798817 12.157510 1729.988098 106 89 44
-125.695038 -153.822637 1873.684883 38 34 27
-33.045208 409.735441 1472.877789 170 164 97
-127.733147 -229.108429 1909.967232 166 150 79
-34.352294 373.405886 1492.767620 108 108 77
-80.692178 153.740573 1671.220016 163 142 70
-107.147253 -51.362169 1802.793312 143 132 76
-120.281827 -155.771875 1873.039818 154 150 83
-120.281827 -155.771875 1873.039818 154 150 83
-79.191089 158.652020 1672.432709 191 172 111
-85.811657 13.054579 1739.909935 140 118 72
-117.282832 -120.230520 1856.086731 180 169 95
-27.436814 356.466532 1490.673065 63 66 42
-119.148958 -190.181041 1888.031006 80 69 35
-80.819112 49.781147 1719.301414 164 144 88
-116.255987 -223.494172 1907.744217 187 177 121
-109.559917 -69.014645 1843.775368 42 38 27
-105.156481 -47.969025 1827.206039 119 105 61
-66.147333 152.054322 1674.713326 118 96 38
-17.844717 400.485516 1477.431965 103 110 107
-65.880036 156.360698 1673.843002 181 161 95
-105.364764 -186.044717 1888.307190 169 154 81
-105.364764 -186.044717 1888.307190 169 154 81
-16.076030 430.151224 1463.709545 103 106 101
-14.814897 428.606081 1465.182400 200 198 188
-109.679627 -224.684691 1918.427086 181 172 89
-14.711645 425.328302 1467.826080 69 73 67
-13.686468 387.732863 1479.671669 181 178 147
-9.583995 342.711329 1487.521172 86 86 55
-13.305879 438.238049 1461.559105 75 79 69
-97.126544 -37.348434 1824.531937 18 18 17
-13.587482 432.569599 1464.998150 118 121 106
-93.109524 -109.209192 1845.911217 46 43 25
-90.602815 -108.100593 1841.691971 46 43 25
-106.669986 -220.270944 1924.168015 126 111 59
-60.471070 167.704511 1677.058601 192 168 97
-5.998803 386.428881 1481.385422 163 161 101
26.376253 643.845606 1313.324261 194 190 184
-41.765505 196.764672 1641.951752 23 18 15
0.491394 476.427412 1440.647793 214 210 207
0.131249 463.901424 1446.473026 207 205 204
-3.728585 434.055281 1467.903996 201 196 187
31.036663 661.071110 1304.489040 102 104 103
-100.770378 63.234329 1830.573845 60 60 45
-48.578492 183.673644 1666.802788 148 128 76
26.102212 615.758848 1334.959888 167 163 160
-68.356913 -142.791748 1840.550804 90 84 35
-94.199234 49.485409 1826.189232 56 50 31
-1.001313 404.793406 1479.805756 181 170 132
-85.238320 -66.724163 1852.044487 12 12 11
10.146625 557.088470 1400.682926 184 182 182
-21.561494 233.844995 1598.861790 108 118 71
1.522416 428.898001 1471.726418 119 111 93
5.419499 460.243940 1450.996208 185 182 172
8.591210 479.172993 1439.200401 202 200 198
13.412492 536.799192 1406.982327 199 198 195
4.034240 397.762942 1482.710171 176 167 111
-75.525951 -47.425061 1844.476318 38 34 33
5.717909 396.698451 1485.767460 84 80 35
10.455239 480.860901 1442.587280 132 130 119
-19.420005 227.547479 1610.194016 81 85 37
-75.671214 -66.074950 1857.534218 15 12 12
13.086829 349.047470 1491.155052 177 163 113
2.851972 438.745975 1480.080032 179 178 176
1.775516 435.819149 1484.065628 58 62 76
-73.599088 -65.761334 1854.260254 15 12 12
13.766195 366.316390 1485.696125 184 173 131
13.025810 330.577087 1502.313137 185 179 132
10.784271 483.468866 1447.952652 133 134 128
-72.564644 -126.619995 1888.733101 182 173 99
17.073199 371.894145 1487.291718 167 159 124
18.511748 536.370277 1419.633007 163 163 164
-62.467772 -38.150352 1841.260719 157 130 72
22.914070 337.212467 1498.580074 188 183 153
-77.163345 -165.053260 1936.586761 180 167 101
24.612379 340.413523 1494.844818 76 80 73
-59.934217 -76.881576 1864.288139 153 140 82
18.564545 388.882160 1493.571186 56 58 63
-61.718869 -109.232736 1886.203194 136 116 57
-61.718869 -109.232736 1886.203194 136 116 57
-67.433518 -156.127620 1921.492004 139 130 70
21.459730 371.067166 1498.504162 60 57 40
-56.033707 -86.887556 1872.314453 183 167 105
22.398262 363.044548 1503.962517 167 155 104
-64.818591 -148.927522 1919.592476 155 147 92
-51.838219 -28.347278 1845.758629 75 77 61
-48.300824 4.321592 1825.418091 163 154 93
-57.830739 -127.888525 1913.508224 75 70 39
-62.756240 -191.259325 1955.012131 20 18 16
-50.735700 -19.643855 1856.541824 21 23 21
38.817170 304.036522 1507.515717 57 63 54
-27.610883 488.304615 1593.221855 119 121 124
-57.780200 7.450815 1863.637352 128 120 79
-39.071372 -63.414866 1860.622978 79 80 58
-44.380984 -91.677403 1888.055992 55 49 30
-37.951788 -59.171087 1859.239769 151 153 103
-49.858680 -143.374360 1933.239937 165 152 94
-60.667992 -209.334755 1994.887161 153 143 78
-49.293461 -181.818151 1957.839012 111 106 52
56.922036 682.273197 1333.412457 155 159 133
-47.643831 -97.646230 1919.854927 148 128 75
-47.238451 -112.806571 1929.131699 136 118 61
-46.360925 -172.018945 1953.900909 120 107 47
-36.459252 516.305208 1639.771080 178 176 175
58.438158 680.364323 1335.552788 71 76 68
-32.205543 503.448534 1645.260811 103 107 107
-43.932751 -75.503254 1922.735786 123 114 76
-41.874194 -164.106441 1955.805779 179 164 89
-30.233243 496.518517 1649.906158 170 167 163
-34.776568 519.368649 1663.274765 105 108 72
-25.122479 481.317472 1658.192062 149 142 122
-33.599678 -51.668656 1908.741379 254 248 243
-35.889041 -174.771821 1973.433685 140 126 73
-32.263476 -157.382309 1960.760307 119 106 53
-21.274760 478.407145 1667.138672 95 98 70
-35.075536 528.659105 1682.289886 174 172 172
-31.382814 554.467058 1687.347412 192 183 175
-27.585408 -167.653310 2000.965309 108 95 47
-31.591922 531.396055 1707.266617 124 125 121
-10.777462 758.261395 1589.679623 182 178 178
-10.777462 758.261395 1589.679623 182 178 178
-24.522638 551.882124 1725.116539 54 57 67
-9.318360 774.643612 1585.763264 143 144 146
-9.318360 774.643612 1585.763264 143 144 146
-16.396356 526.118898 1733.123779 157 160 161
13.564910 429.601383 1722.163010 116 119 111
-17.609128 513.646317 1778.916740 255 255 255
-17.113470 771.792793 1655.591011 209 202 202
-14.456789 775.149250 1653.469276 137 139 149
8.007950 446.273994 1748.991966 109 109 105
-14.374627 783.180952 1655.442810 196 192 192
-47.954822 701.582766 1793.855858 126 105 109
-11.148086 502.820444 1791.289711 57 57 58
-1.530318 479.049921 1782.189369 79 77 77
7.921387 461.615944 1778.133774 48 50 52
-0.225503 482.914829 1798.633385 125 122 121
2.074561 606.069183 1766.618538 255 255 255
35.935178 583.567381 1710.970688 255 255 255
-345.705104 282.446170 1434.831524 255 255 255
-341.510582 288.798213 1436.263561 172 174 157
-270.385528 649.398041 1272.006607 180 177 160
-272.161341 538.046789 1309.504700 80 76 94
-324.444413 332.020164 1430.037880 116 113 86
-303.120136 519.995070 1353.238392 251 253 251
-308.721972 476.442242 1376.607227 254 255 254
-291.851163 513.095140 1354.082870 174 172 160
-285.693932 464.161205 1364.524937 254 255 254
-288.700938 518.715668 1352.786827 200 195 180
-308.807468 333.579111 1432.753277 83 81 44
-308.989573 451.289415 1396.078205 255 254 254
-265.226984 619.216776 1302.418613 149 150 148
-301.219273 457.874775 1389.812851 150 135 111
-302.987337 337.543082 1430.841160 139 128 90
-310.103440 382.681918 1424.428082 120 112 61
-304.494286 398.757792 1421.173763 150 142 113
-303.758407 413.476562 1415.737343 255 254 252
-300.581813 380.530357 1426.537228 78 73 39
-295.395660 405.649471 1414.048862 167 160 121
-290.248752 328.829432 1436.614990 152 144 120
-336.729956 241.824961 1514.237499 255 255 255
-434.395409 -45.663449 1712.232208 254 254 254
-287.854123 385.222697 1427.465343 48 50 31
-276.040053 280.653238 1450.229073 96 105 83
-285.573626 379.710841 1429.211140 59 60 58
-422.447634 -68.541181 1717.541313 126 108 53
-421.197224 -75.866187 1726.066399 168 154 92
-440.321255 -46.235639 1741.864777 61 49 34
-195.502269 279.468226 1392.270470 96 105 83
-265.037680 336.702037 1446.190929 63 63 36
-406.318998 -86.185390 1744.726181 123 108 48
-406.318998 -86.185390 1744.726181 123 108 48
-406.908131 -80.983812 1761.955643 105 92 38
-234.062457 291.141009 1456.299686 162 167 131
-266.691899 255.172658 1503.717327 129 145 115
-397.806072 -85.508859 1764.858437 151 137 67
-397.806072 -85.508859 1764.858437 151 137 67
-396.875525 -89.471453 1766.480255 157 140 57
-395.675993 -83.717954 1770.157814 97 81 29
-256.890368 253.618121 1510.459137 130 136 103
-391.676974 -90.700209 1775.984573 91 77 34
-259.722090 222.418642 1526.819515 125 123 78
-227.863598 506.322098 1394.026375 204 198 158
-217.911100 529.122972 1383.898163 197 199 194
-216.985273 523.587799 1387.433338 143 145 146
-230.279660 392.105961 1452.235699 79 84 48
-213.286281 520.141935 1390.424347 176 185 183
-214.192367 313.902807 1468.181324 53 52 31
-221.658230 391.989326 1451.784611 91 94 52
-209.528399 502.033234 1399.840641 136 131 138
-379.287672 -141.581500 1820.408630 105 91 47
-219.144464 395.759797 1454.469395 151 153 95
-373.238301 -102.171528 1803.383827 150 128 56
-373.485303 -153.595269 1827.752304 27 21 17
-373.485303 -153.595269 1827.752304 27 21 17
-194.400954 543.600559 1380.335236 151 147 132
-196.881258 536.671305 1386.599255 114 109 112
-371.952796 -168.880963 1839.661407 254 255 254
-334.902334 -252.676702 1829.883575 255 255 255
-345.009589 -46.916747 1767.626572 255 255 255
-193.703985 497.912884 1405.769539 159 171 176
-196.731710 348.369622 1464.080238 160 153 94
-214.805961 240.861225 1526.203728 215 209 189
-357.077003 -158.320200 1840.786171 202 195 126
-192.441857 370.651054 1464.707947 113 110 68
-205.500531 227.120852 1539.119911 196 192 163
-319.801664 -53.418285 1773.850441 22 17 15
-191.687763 256.198263 1514.883137 115 140 83
-385.125017 58.422077 1815.015221 255 255 255
-325.303006 -20.500048 1779.068947 26 21 19
-180.565882 393.055511 1462.621689 121 116 67
-376.036644 56.184053 1816.511917 94 75 40
-160.640442 555.322456 1381.686401 214 204 181
-368.323159 101.862919 1793.266296 169 151 91
-368.323159 101.862919 1793.266296 169 151 91
-358.378863 165.409112 1767.134094 254 254 254
-179.819143 250.144744 1527.820396 183 188 154
-157.399714 533.497858 1394.800949 145 146 149
-335.185289 -233.853078 1900.008583 157 135 65
-173.765838 256.994176 1524.715042 117 135 75
-375.872183 -369.596004 2005.803680 54 45 26
-148.088181 339.674759 1468.046379 72 78 39
-343.259048 166.791570 1765.912056 54 49 32
-357.911587 122.281873 1801.075935 23 17 18
-349.249291 65.964282 1813.371086 161 145 103
-343.229151 105.089140 1793.846321 67 54 42
-159.445155 271.294522 1512.042999 92 94 68
-341.793847 94.083554 1797.668839 77 61 29
-152.929866 443.765402 1443.979836 202 192 158
-152.929866 443.765402 1443.979836 202 192 158
-266.634727 -0.585789 1756.209373 24 19 19
-323.916888 151.508760 1768.314362 128 119 64
-346.265626 -377.558398 2000.233269 26 21 17
-260.170937 6.651038 1752.942657 128 117 79
-144.807959 390.318942 1467.477798 190 188 132
-322.816920 143.339908 1780.096817 255 255 255
-142.750454 266.018605 1523.668098 189 189 135
-317.108846 -395.328116 1997.026253 50 43 29
-221.119452 -124.210894 1774.689102 128 117 69
-253.861070 29.556358 1754.929543 98 89 71
-233.431220 -175.260818 1812.941170 185 174 137
-133.004570 372.536659 1476.154327 111 111 55
-132.845962 379.821706 1475.402546 159 159 102
-123.786139 507.780886 1415.164852 151 153 160
-227.313066 -173.036909 1813.055229 73 67 29
-208.665252 -45.540941 1740.064430 17 15 15
-119.228041 350.476408 1476.587009 133 132 79
-260.859203 109.399819 1748.104095 157 145 127
-291.807508 -340.495777 1980.618477 45 36 23
-92.705506 278.350949 1484.862232 125 130 76
-210.260892 -179.325426 1818.561172 164 153 112
-118.219602 404.134798 1470.773888 168 172 112
-291.213584 -329.653263 1983.287239 139 127 90
-108.814061 490.888786 1426.448345 150 152 157
-124.986196 225.287509 1553.679657 155 151 87
-282.976747 -336.064744 1980.497551 55 46 27
-102.532876 350.358701 1478.325653 135 133 82
-102.532876 350.358701 1478.325653 135 133 82
-238.480902 177.368844 1720.480347 123 102 57
-103.388429 531.735563 1408.460331 196 203 208
-103.388429 531.735563 1408.460331 196 203 208
-233.431602 117.003381 1750.520515 53 45 27
-197.057676 -185.064673 1827.947617 168 163 94
-109.623790 243.581533 1544.549847 61 56 33
-88.500655 341.228557 1478.908253 68 71 39
-93.106294 525.132275 1411.760902 159 155 157
-207.474661 -220.219636 1863.329697 175 161 111
-91.794169 538.443375 1405.454922 164 165 172
-99.151564 373.607302 1482.233334 113 109 54
-210.534072 -243.688178 1877.879143 32 27 18
-95.959717 487.628746 1432.122326 142 139 145
-159.896314 4.996652 1718.406677 24 21 20
-90.315711 510.473490 1421.151161 156 155 159
-200.953913 -217.440724 1863.196564 39 34 28
-176.668119 -72.694117 1775.190735 185 178 121
-84.379590 351.148462 1482.159996 127 130 75
-87.789196 497.570229 1428.818607 190 200 204
-155.868113 -67.594832 1753.451538 185 178 121
-214.023399 188.381457 1724.749756 145 119 64
-149.645817 16.225447 1711.966133 170 153 112
-82.848710 508.728552 1422.808456 215 209 206
-274.439907 343.493581 1744.659615 151 152 122
-175.416768 -159.949529 1826.486015 84 86 36
-75.660354 546.518278 1404.300785 140 142 152
-68.005311 334.240174 1483.089447 193 189 133
-76.831883 522.101974 1416.784191 140 144 157
-86.030525 400.965691 1481.003094 165 164 91
-170.312285 -157.599235 1826.766396 75 69 33
-234.814000 -369.573808 2000.914383 108 90 49
-128.576577 -17.402501 1720.961571 129 120 89
-130.536449 36.916450 1705.144691 137 124 90
-126.123011 24.224947 1705.481529 174 159 112
-70.353115 483.061218 1439.501286 169 171 173
-166.133690 -160.040927 1839.570045 167 153 87
-168.145955 -174.123871 1848.690796 156 140 87
-215.366220 -320.724106 1977.965546 63 47 27
-129.786217 45.982450 1708.700180 159 140 96
-226.680613 -367.394757 2014.562416 17 13 13
-166.465807 -180.831206 1855.065536 155 140 87
-40.063143 285.315967 1493.752575 57 63 46
-119.324958 -24.633753 1733.772659 45 39 34
-48.524421 341.918087 1482.709312 70 73 37
-126.992285 -59.231627 1761.664581 187 179 131
-238.242960 -57.066387 1914.862061 89 76 42
-66.755503 252.841210 1548.704338 203 199 157
-220.951152 -348.683691 2016.453743 21 17 16
-107.320225 30.419946 1699.858665 177 163 109
-40.904537 650.351143 1348.547745 170 171 174
-170.326650 -246.158099 1911.775398 28 24 18
-108.433974 68.019050 1698.694801 168 148 106
-149.604726 -141.104245 1848.216629 63 61 26
-153.241897 -181.854916 1872.655869 25 22 9
-153.241897 -181.854916 1872.655869 25 22 9
-128.995883 146.661007 1698.200798 29 24 21
-102.475584 71.032822 1697.170639 132 114 71
-112.760472 101.538432 1700.039291 170 152 104
-94.500184 38.079926 1703.546333 94 77 45
-45.927364 371.978521 1491.600990 183 168 95
-52.060819 253.347349 1551.735592 195 197 142
-98.551965 -29.811516 1740.267563 162 148 78
-41.319752 420.721102 1469.702625 215 208 176
-38.926190 435.036135 1460.450459 217 209 178
-147.943187 -151.273310 1869.597054 128 121 63
-144.577897 -182.069361 1879.706573 49 41 15
-142.205250 -196.952772 1885.982323 48 38 29
-141.119504 -169.492328 1874.401093 139 126 72
-136.278343 -166.340840 1875.272179 35 29 19
-130.103552 -127.267110 1851.570511 45 41 23
-135.151315 -141.100347 1865.013313 135 122 59
-87.228489 46.058163 1714.545631 171 152 86
-140.897429 -148.736846 1877.863503 23 22 14
-129.865885 -198.450565 1884.521675 139 125 65
-89.907128 -12.221459 1746.681976 19 14 14
-109.604514 -44.575831 1790.338707 82 74 45
-83.422828 25.119919 1723.694420 82 72 35
-129.125607 -124.141550 1855.138206 190 176 101
-132.988715 -157.996345 1876.805687 85 73 54
-86.766666 166.717172 1668.880272 108 97 40
-82.833493 54.996896 1713.765907 116 96 50
-107.117832 -37.485790 1791.975594 84 70 31
-88.204026 28.274488 1740.363884 123 105 67
-116.740119 -189.483869 1880.427933 112 101 47
-119.193697 -167.576826 1874.762917 194 189 114
-12.143306 351.679206 1489.312840 214 213 209
-123.440921 -136.445022 1868.690681 196 190 117
-87.277192 25.732636 1746.234703 30 25 21
-86.310911 -8.190827 1761.088943 28 23 18
-118.619692 -120.712197 1858.224297 185 171 101
-119.815743 -128.633380 1863.581657 182 169 99
-13.261805 387.604833 1479.119301 179 178 146
-81.701720 -5.186404 1754.876137 28 23 18
-106.058991 -49.951312 1814.496231 141 130 76
-100.230181 -30.819342 1798.591995 150 136 71
-101.520181 -101.792467 1838.347435 142 134 90
-113.095570 -227.021289 1914.002228 136 117 60
-5.940595 386.542869 1481.232166 153 153 88
22.784741 609.575748 1339.358139 167 163 162
